4.38086878275, 1.8375193457, -0.559192903471, 0, 0, 0
4.38274181572, 1.84215526497, -0.559192903471, 0, 0, 0
4.38498945528, 1.8477183681, -0.559192903471, 0, 0, 0
4.38836091462, 1.85606302279, -0.559192903471, 0, 0, 0
4.39060855418, 1.86162612592, -0.559192903471, 0, 0, 0
4.39248158714, 1.86626204519, -0.559192903471, 0, 0, 0
4.39472922671, 1.87182514832, -0.559192903471, 0, 0, 0
4.39810068605, 1.88016980301, -0.559192903471, 0, 0, 0
4.40034832561, 1.88573290614, -0.559192903471, 0, 0, 0
4.40222135857, 1.89036882541, -0.559192903471, 0, 0, 0
4.40446899813, 1.89593192854, -0.559192903471, 0, 0, 0
4.40671663769, 1.90149503166, -0.559192903471, 0, 0, 0
4.41008809704, 1.90983968635, -0.559192903471, 0, 0, 0
4.41196113, 1.91447560563, -0.559192903471, 0, 0, 0
4.41420876956, 1.92003870875, -0.559192903471, 0, 0, 0
4.41645640912, 1.92560181188, -0.559192903471, 0, 0, 0
4.41982786846, 1.93394646657, -0.559192903471, 0, 0, 0
4.42207550802, 1.9395095697, -0.559192903471, 0, 0, 0
4.42394854099, 1.94414548897, -0.559192903471, 0, 0, 0
4.42619618055, 1.9497085921, -0.559192903471, 0, 0, 0
4.42844382011, 1.95527169523, -0.559192903471, 0, 0, 0
4.43144067286, 1.96268916606, -0.559192903471, 0, 0, 0
4.43368831242, 1.96825226919, -0.559192903471, 0, 0, 0
4.43593595198, 1.97381537232, -0.559192903471, 0, 0, 0
4.43780898495, 1.97845129159, -0.559192903471, 0, 0, 0
4.44005662451, 1.98401439472, -0.559192903471, 0, 0, 0
4.44342808385, 1.99235904941, -0.559192903471, 0, 0, 0
4.44567572341, 1.99792215254, -0.559192903471, 0, 0, 0
4.44754875638, 2.00255807181, -0.559192903471, 0, 0, 0
4.44979639594, 2.00812117494, -0.559192903471, 0, 0, 0
4.45279324868, 2.01553864578, -0.559192903471, 0, 0, 0
4.45504088825, 2.0211017489, -0.559192903471, 0, 0, 0
4.45728852781, 2.02666485203, -0.559192903471, 0, 0, 0
4.45953616737, 2.03222795516, -0.559192903471, 0, 0, 0
4.46140920033, 2.03686387443, -0.559192903471, 0, 0, 0
4.46478065967, 2.04520852912, -0.559192903471, 0, 0, 0
4.46702829923, 2.05077163225, -0.559192903471, 0, 0, 0
4.4689013322, 2.05540755152, -0.559192903471, 0, 0, 0
4.47114897176, 2.06097065465, -0.559192903471, 0, 0, 0
4.4745204311, 2.06931530934, -0.559192903471, 0, 0, 0
4.47676807066, 2.07487841247, -0.559192903471, 0, 0, 0
4.47864110363, 2.07951433174, -0.559192903471, 0, 0, 0
4.48088874319, 2.08507743487, -0.559192903471, 0, 0, 0
4.48313638275, 2.09064053799, -0.559192903471, 0, 0, 0
4.4861332355, 2.09805800883, -0.559192903471, 0, 0, 0
4.48838087506, 2.10362111196, -0.559192903471, 0, 0, 0
4.49062851462, 2.10918421509, -0.559192903471, 0, 0, 0
4.49287615418, 2.11474731821, -0.559192903471, 0, 0, 0
4.49587300693, 2.12216478905, -0.559192903471, 0, 0, 0
4.49812064649, 2.12772789218, -0.559192903471, 0, 0, 0
4.50036828605, 2.13329099531, -0.559192903471, 0, 0, 0
4.50261592561, 2.13885409843, -0.559192903471, 0, 0, 0
4.50486356517, 2.14441720156, -0.559192903471, 0, 0, 0
4.50786041792, 2.1518346724, -0.559192903471, 0, 0, 0
4.51010805748, 2.15739777552, -0.559192903471, 0, 0, 0
4.51235569704, 2.16296087865, -0.559192903471, 0, 0, 0
4.5146033366, 2.16852398178, -0.559192903471, 0, 0, 0
4.51760018935, 2.17594145262, -0.559192903471, 0, 0, 0
4.51984782891, 2.18150455574, -0.559192903471, 0, 0, 0
4.52209546847, 2.18706765887, -0.559192903471, 0, 0, 0
4.52396850143, 2.19170357814, -0.559192903471, 0, 0, 0
4.52621614099, 2.19726668127, -0.559192903471, 0, 0, 0
4.52921299374, 2.20468415211, -0.559192903471, 0, 0, 0
4.5314606333, 2.21024725523, -0.559192903471, 0, 0, 0
4.53370827286, 2.21581035836, -0.559192903471, 0, 0, 0
4.53595591242, 2.22137346149, -0.559192903471, 0, 0, 0
4.53782894539, 2.22600938076, -0.559192903471, 0, 0, 0
4.54120040473, 2.23435403545, -0.559192903471, 0, 0, 0
4.54344804429, 2.23991713858, -0.559192903471, 0, 0, 0
4.54532107726, 2.24455305785, -0.559192903471, 0, 0, 0
4.54756871682, 2.25011616098, -0.559192903471, 0, 0, 0
4.55094017616, 2.25846081567, -0.559192903471, 0, 0, 0
4.55281320913, 2.26309673494, -0.559192903471, 0, 0, 0
4.55506084869, 2.26865983807, -0.559192903471, 0, 0, 0
4.55730848825, 2.2742229412, -0.559192903471, 0, 0, 0
4.55955612781, 2.27978604433, -0.559192903471, 0, 0, 0
4.56255298056, 2.28720351516, -0.559192903471, 0, 0, 0
4.56480062012, 2.29276661829, -0.559192903471, 0, 0, 0
4.56704825968, 2.29832972142, -0.559192903471, 0, 0, 0
4.56892129264, 2.30296564069, -0.559192903471, 0, 0, 0
4.57229275198, 2.31131029538, -0.559192903471, 0, 0, 0
4.57454039155, 2.31687339851, -0.559192903471, 0, 0, 0
4.57678803111, 2.32243650164, -0.559192903471, 0, 0, 0
4.57866106407, 2.32707242091, -0.559192903471, 0, 0, 0
4.58090870363, 2.33263552404, -0.559192903471, 0, 0, 0
4.58390555638, 2.34005299487, -0.559192903471, 0, 0, 0
4.58468701864, 2.34189400458, -0.566406236925, 0, 0, 0
4.58504538659, 2.34282758501, -0.566406236925, 0, 0, 0
4.58541999318, 2.34375476886, -0.573576436351, 0, 0, 0
4.58649509703, 2.34655551014, -0.580702955711, 0, 0, 0
4.58682066518, 2.34750102872, -0.580702955711, 0, 0, 0
4.58682066518, 2.34750102872, -0.587785252292, 0, 0, 0
4.58682066518, 2.34750102872, -0.594822786751, 0, 0, 0
4.58682066518, 2.34750102872, -0.601815023152, 0, 0, 0
4.58682066518, 2.34750102872, -0.615661475326, 0, 0, 0
4.58682066518, 2.34750102872, -0.622514636638, 0, 0, 0
4.58682066518, 2.34750102872, -0.62932039105, 0, 0, 0
4.58682066518, 2.34750102872, -0.636078220278, 0, 0, 0
4.58682066518, 2.34750102872, -0.642787609687, 0, 0, 0
4.58682066518, 2.34750102872, -0.64944804833, 0, 0, 0
4.58699431336, 2.34848583647, -0.65605902899, 0, 0, 0
4.58699431336, 2.34848583647, -0.662620048216, 0, 0, 0
4.58699431336, 2.34848583647, -0.669130606359, 0, 0, 0
4.58699431336, 2.34848583647, -0.681998360062, 0, 0, 0
4.5870814691, 2.34948203117, -0.688354575694, 0, 0, 0
4.58701171263, 2.34848446712, -0.694658370459, 0, 0, 0
4.58701171263, 2.34848446712, -0.7009092643, 0, 0, 0
4.58701171263, 2.34848446712, -0.707106781187, 0, 0, 0
4.58697681313, 2.34748507629, -0.719339800339, 0, 0, 0
4.58697681313, 2.34748507629, -0.725374371012, 0, 0, 0
4.58697681313, 2.34748507629, -0.731353701619, 0, 0, 0
4.58697681313, 2.34748507629, -0.73727733681, 0, 0, 0
4.58697681313, 2.34748507629, -0.748955720789, 0, 0, 0
4.5870813416, 2.34649055439, -0.754709580223, 0, 0, 0
4.5870813416, 2.34649055439, -0.7604059656, 0, 0, 0
4.5870813416, 2.34649055439, -0.766044443119, 0, 0, 0
4.5870813416, 2.34649055439, -0.771624583388, 0, 0, 0
4.5870813416, 2.34649055439, -0.782608156852, 0, 0, 0
4.5870813416, 2.34649055439, -0.788010753607, 0, 0, 0
4.5870813416, 2.34649055439, -0.793353340291, 0, 0, 0
4.5870813416, 2.34649055439, -0.798635510047, 0, 0, 0
4.58732326349, 2.34552025867, -0.809016994375, 0, 0, 0
4.58732326349, 2.34552025867, -0.814115518356, 0, 0, 0
4.58732326349, 2.34552025867, -0.819152044289, 0, 0, 0
4.58732326349, 2.34552025867, -0.824126188622, 0, 0, 0
4.58732326349, 2.34552025867, -0.829037572555, 0, 0, 0
4.58732326349, 2.34552025867, -0.838670567945, 0, 0, 0
4.58732326349, 2.34552025867, -0.843391445813, 0, 0, 0
4.58732326349, 2.34552025867, -0.848048096156, 0, 0, 0
4.58732326349, 2.34552025867, -0.852640164354, 0, 0, 0
4.58774588175, 2.34461395088, -0.861629160442, 0, 0, 0
4.58774588175, 2.34461395088, -0.87035569594, 0, 0, 0
4.58774588175, 2.34461395088, -0.874619707139, 0, 0, 0
4.58774588175, 2.34461395088, -0.878817112662, 0, 0, 0
4.58774588175, 2.34461395088, -0.882947592859, 0, 0, 0
4.58774588175, 2.34461395088, -0.891006524188, 0, 0, 0
4.58831945819, 2.34379479884, -0.894934361602, 0, 0, 0
4.58831945819, 2.34379479884, -0.898794046299, 0, 0, 0
4.58831945819, 2.34379479884, -0.90258528435, 0, 0, 0
4.58831945819, 2.34379479884, -0.909961270877, 0, 0, 0
4.58831945819, 2.34379479884, -0.913545457643, 0, 0, 0
4.58831945819, 2.34379479884, -0.917060074385, 0, 0, 0
4.58831945819, 2.34379479884, -0.920504853452, 0, 0, 0
4.58900145655, 2.34306344514, -0.923879532511, 0, 0, 0
4.58900145655, 2.34306344514, -0.930417567982, 0, 0, 0
4.58900145655, 2.34306344514, -0.933580426497, 0, 0, 0
4.58900145655, 2.34306344514, -0.936672189248, 0, 0, 0
4.58900145655, 2.34306344514, -0.939692620786, 0, 0, 0
4.58824674697, 2.34371950416, -0.942641491092, 0, 0, 0
4.58447319907, 2.34699979931, -0.948323655206, 0, 0, 0
4.58127865703, 2.3494070594, -0.948323655206, 0, 0, 0
4.57728547948, 2.35241613452, -0.948323655206, 0, 0, 0
4.57329230193, 2.35542520963, -0.948323655206, 0, 0, 0
4.56690321785, 2.36023972982, -0.948323655206, 0, 0, 0
4.56211140479, 2.36385061996, -0.948323655206, 0, 0, 0
4.55731959173, 2.3674615101, -0.948323655206, 0, 0, 0
4.55332641418, 2.37047058521, -0.948323655206, 0, 0, 0
4.54853460112, 2.37408147535, -0.948323655206, 0, 0, 0
4.54214551704, 2.37889599554, -0.948323655206, 0, 0, 0
4.53735370398, 2.38250688568, -0.948323655206, 0, 0, 0
4.53336052643, 2.38551596079, -0.948323655206, 0, 0, 0
4.52856871337, 2.38912685093, -0.948323655206, 0, 0, 0
4.52138099378, 2.39454318614, -0.948323655206, 0, 0, 0
4.51738781623, 2.39755226125, -0.948323655206, 0, 0, 0
4.51259600316, 2.40116315139, -0.948323655206, 0, 0, 0
4.5078041901, 2.40477404153, -0.948323655206, 0, 0, 0
4.50301237704, 2.40838493167, -0.948323655206, 0, 0, 0
4.49662329296, 2.41319945186, -0.948323655206, 0, 0, 0
4.4918314799, 2.416810342, -0.948323655206, 0, 0, 0
4.48703966684, 2.42042123213, -0.948323655206, 0, 0, 0
4.48304648929, 2.42343030725, -0.948323655206, 0, 0, 0
4.4758587697, 2.42884664246, -0.948323655206, 0, 0, 0
4.47106695664, 2.4324575326, -0.948323655206, 0, 0, 0
4.46707377909, 2.43546660771, -0.948323655206, 0, 0, 0
4.46228196603, 2.43907749785, -0.948323655206, 0, 0, 0
4.45749015297, 2.44268838799, -0.948323655206, 0, 0, 0
4.45110106889, 2.44750290818, -0.948323655206, 0, 0, 0
4.44630925583, 2.45111379831, -0.948323655206, 0, 0, 0
4.44151744277, 2.45472468845, -0.948323655206, 0, 0, 0
4.43672562971, 2.45833557859, -0.948323655206, 0, 0, 0
4.43033654563, 2.46315009878, -0.948323655206, 0, 0, 0
4.42554473257, 2.46676098892, -0.948323655206, 0, 0, 0
4.42075291951, 2.47037187906, -0.948323655206, 0, 0, 0
4.41675974196, 2.47338095417, -0.948323655206, 0, 0, 0
4.41116929339, 2.47759365933, -0.948323655206, 0, 0, 0
4.40478020931, 2.48240817952, -0.948323655206, 0, 0, 0
4.39998839625, 2.48601906966, -0.948323655206, 0, 0, 0
4.3959952187, 2.48902814477, -0.948323655206, 0, 0, 0
4.39120340564, 2.49263903491, -0.948323655206, 0, 0, 0
4.38641159258, 2.49624992505, -0.948323655206, 0, 0, 0
4.37922387299, 2.50166626026, -0.948323655206, 0, 0, 0
4.37443205993, 2.5052771504, -0.948323655206, 0, 0, 0
4.37043888238, 2.50828622551, -0.948323655206, 0, 0, 0
4.36564706932, 2.51189711565, -0.948323655206, 0, 0, 0
4.35925798524, 2.51671163584, -0.948323655206, 0, 0, 0
4.35446617218, 2.52032252598, -0.948323655206, 0, 0, 0
4.34967435912, 2.52393341612, -0.948323655206, 0, 0, 0
4.34488254605, 2.52754430626, -0.948323655206, 0, 0, 0
4.34009073299, 2.53115519639, -0.948323655206, 0, 0, 0
4.33370164891, 2.53596971658, -0.948323655206, 0, 0, 0
4.32890983585, 2.53958060672, -0.948323655206, 0, 0, 0
4.32411802279, 2.54319149686, -0.948323655206, 0, 0, 0
4.31932620973, 2.546802387, -0.948323655206, 0, 0, 0
4.31293712565, 2.55161690718, -0.948323655206, 0, 0, 0
4.30814531259, 2.55522779732, -0.948323655206, 0, 0, 0
4.30335349953, 2.55883868746, -0.948323655206, 0, 0, 0
4.29856168647, 2.5624495776, -0.948323655206, 0, 0, 0
4.29376987341, 2.56606046774, -0.948323655206, 0, 0, 0
4.28738078933, 2.57087498792, -0.948323655206, 0, 0, 0
4.28258897627, 2.57448587806, -0.948323655206, 0, 0, 0
4.27779716321, 2.5780967682, -0.948323655206, 0, 0, 0
4.27380398566, 2.58110584332, -0.948323655206, 0, 0, 0
4.26661626607, 2.58652217852, -0.948323655206, 0, 0, 0
4.26182445301, 2.59013306866, -0.948323655206, 0, 0, 0
4.25703263995, 2.5937439588, -0.948323655206, 0, 0, 0
4.2530394624, 2.59675303392, -0.948323655206, 0, 0, 0
4.24824764934, 2.60036392406, -0.948323655206, 0, 0, 0
4.24105992975, 2.60578025927, -0.948323655206, 0, 0, 0
4.2370667522, 2.60878933438, -0.948323655206, 0, 0, 0
4.23227493914, 2.61240022452, -0.948323655206, 0, 0, 0
4.22748312608, 2.61601111466, -0.948323655206, 0, 0, 0
4.22029540649, 2.62142744987, -0.948323655206, 0, 0, 0
4.21630222894, 2.62443652498, -0.948323655206, 0, 0, 0
4.21151041588, 2.62804741512, -0.948323655206, 0, 0, 0
4.20671860282, 2.63165830526, -0.948323655206, 0, 0, 0
4.20192678976, 2.6352691954, -0.948323655206, 0, 0, 0
4.19553770568, 2.64008371558, -0.948323655206, 0, 0, 0
4.19074589262, 2.64369460572, -0.948323655206, 0, 0, 0
4.18595407956, 2.64730549586, -0.948323655206, 0, 0, 0
4.18196090201, 2.65031457098, -0.948323655206, 0, 0, 0
4.17716908895, 2.65392546112, -0.948323655206, 0, 0, 0
4.16998136935, 2.65934179633, -0.948323655206, 0, 0, 0
4.1659881918, 2.66235087144, -0.948323655206, 0, 0, 0
4.16119637874, 2.66596176158, -0.948323655206, 0, 0, 0
4.15640456568, 2.66957265172, -0.948323655206, 0, 0, 0
4.14921684609, 2.67498898693, -0.948323655206, 0, 0, 0
4.14522366854, 2.67799806204, -0.948323655206, 0, 0, 0
4.14043185548, 2.68160895218, -0.948323655206, 0, 0, 0
4.13564004242, 2.68521984232, -0.948323655206, 0, 0, 0
4.13164686487, 2.68822891744, -0.948323655206, 0, 0, 0
4.12445914528, 2.69364525265, -0.948323655206, 0, 0, 0
4.11966733222, 2.69725614278, -0.948323655206, 0, 0, 0
4.11567415467, 2.7002652179, -0.948323655206, 0, 0, 0
4.11088234161, 2.70387610804, -0.948323655206, 0, 0, 0
4.10369462202, 2.70929244325, -0.948323655206, 0, 0, 0
4.09970144447, 2.71230151836, -0.948323655206, 0, 0, 0
4.09490963141, 2.7159124085, -0.948323655206, 0, 0, 0
4.09011781835, 2.71952329864, -0.948323655206, 0, 0, 0
4.08532600529, 2.72313418878, -0.948323655206, 0, 0, 0
4.07893692121, 2.72794870896, -0.948323655206, 0, 0, 0
4.07414510815, 2.7315595991, -0.948323655206, 0, 0, 0
4.06935329509, 2.73517048924, -0.948323655206, 0, 0, 0
4.06456148203, 2.73878137938, -0.948323655206, 0, 0, 0
4.05817239795, 2.74359589957, -0.948323655206, 0, 0, 0
4.05338058489, 2.74720678971, -0.948323655206, 0, 0, 0
4.04858877183, 2.75081767984, -0.948323655206, 0, 0, 0
4.04379695877, 2.75442856998, -0.948323655206, 0, 0, 0
4.03980378122, 2.7574376451, -0.948323655206, 0, 0, 0
4.03261606163, 2.76285398031, -0.948323655206, 0, 0, 0
4.02782424857, 2.76646487045, -0.948323655206, 0, 0, 0
4.02383107102, 2.76947394556, -0.948323655206, 0, 0, 0
4.01903925796, 2.7730848357, -0.948323655206, 0, 0, 0
4.01185153837, 2.77850117091, -0.948323655206, 0, 0, 0
4.0070597253, 2.78211206105, -0.948323655206, 0, 0, 0
4.00306654775, 2.78512113616, -0.948323655206, 0, 0, 0
3.99827473469, 2.7887320263, -0.948323655206, 0, 0, 0
3.99348292163, 2.79234291644, -0.948323655206, 0, 0, 0
3.98629520204, 2.79775925165, -0.948323655206, 0, 0, 0
3.98230202449, 2.80076832677, -0.948323655206, 0, 0, 0
3.97751021143, 2.80437921691, -0.948323655206, 0, 0, 0
3.97271839837, 2.80799010704, -0.948323655206, 0, 0, 0
3.96632931429, 2.81280462723, -0.948323655206, 0, 0, 0
3.96153750123, 2.81641551737, -0.948323655206, 0, 0, 0
3.95674568817, 2.82002640751, -0.948323655206, 0, 0, 0
3.95275251062, 2.82303548262, -0.948323655206, 0, 0, 0
3.94796069756, 2.82664637276, -0.948323655206, 0, 0, 0
3.94077297797, 2.83206270797, -0.948323655206, 0, 0, 0
3.93677980042, 2.83507178309, -0.948323655206, 0, 0, 0
3.93198798736, 2.83868267322, -0.948323655206, 0, 0, 0
3.9271961743, 2.84229356336, -0.948323655206, 0, 0, 0
3.92240436124, 2.8459044535, -0.948323655206, 0, 0, 0
3.91601527716, 2.85071897369, -0.948323655206, 0, 0, 0
3.9112234641, 2.85432986383, -0.948323655206, 0, 0, 0
3.90643165104, 2.85794075397, -0.948323655206, 0, 0, 0
3.90163983798, 2.8615516441, -0.948323655206, 0, 0, 0
3.8952507539, 2.86636616429, -0.948323655206, 0, 0, 0
3.89045894084, 2.86997705443, -0.948323655206, 0, 0, 0
3.88566712778, 2.87358794457, -0.948323655206, 0, 0, 0
3.88087531472, 2.87719883471, -0.948323655206, 0, 0, 0
3.87688213717, 2.88020790982, -0.948323655206, 0, 0, 0
3.86969441758, 2.88562424503, -0.948323655206, 0, 0, 0
3.86490260452, 2.88923513517, -0.948323655206, 0, 0, 0
3.86011079146, 2.89284602531, -0.948323655206, 0, 0, 0
3.85611761391, 2.89585510042, -0.948323655206, 0, 0, 0
3.84892989432, 2.90127143563, -0.948323655206, 0, 0, 0
3.84413808126, 2.90488232577, -0.948323655206, 0, 0, 0
3.8393462682, 2.90849321591, -0.948323655206, 0, 0, 0
3.83535309064, 2.91150229103, -0.948323655206, 0, 0, 0
3.83056127758, 2.91511318117, -0.948323655206, 0, 0, 0
3.82337355799, 2.92052951637, -0.948323655206, 0, 0, 0
3.81858174493, 2.92414040651, -0.948323655206, 0, 0, 0
3.81458856738, 2.92714948163, -0.948323655206, 0, 0, 0
3.80979675432, 2.93076037177, -0.948323655206, 0, 0, 0
3.80260903473, 2.93617670698, -0.948323655206, 0, 0, 0
3.79861585718, 2.93918578209, -0.948323655206, 0, 0, 0
3.79382404412, 2.94279667223, -0.948323655206, 0, 0, 0
3.78903223106, 2.94640756237, -0.948323655206, 0, 0, 0
3.784240418, 2.95001845251, -0.948323655206, 0, 0, 0
3.77785133392, 2.95483297269, -0.948323655206, 0, 0, 0
3.77305952086, 2.95844386283, -0.948323655206, 0, 0, 0
3.7682677078, 2.96205475297, -0.948323655206, 0, 0, 0
3.76347589474, 2.96566564311, -0.948323655206, 0, 0, 0
3.75948271719, 2.96867471823, -0.948323655206, 0, 0, 0
3.7522949976, 2.97409105343, -0.948323655206, 0, 0, 0
3.74750318454, 2.97770194357, -0.948323655206, 0, 0, 0
3.74351000699, 2.98071101869, -0.948323655206, 0, 0, 0
3.73871819393, 2.98432190883, -0.948323655206, 0, 0, 0
3.73153047434, 2.98973824404, -0.948323655206, 0, 0, 0
3.72673866128, 2.99334913418, -0.948323655206, 0, 0, 0
3.72194684822, 2.99696002431, -0.948323655206, 0, 0, 0
3.71795367067, 2.99996909943, -0.948323655206, 0, 0, 0
3.71316185761, 3.00357998957, -0.948323655206, 0, 0, 0
3.70597413802, 3.00899632478, -0.948323655206, 0, 0, 0
3.70198096047, 3.01200539989, -0.948323655206, 0, 0, 0
3.69718914741, 3.01561629003, -0.948323655206, 0, 0, 0
3.69239733435, 3.01922718017, -0.948323655206, 0, 0, 0
3.68600825027, 3.02404170036, -0.948323655206, 0, 0, 0
3.68121643721, 3.02765259049, -0.948323655206, 0, 0, 0
3.67642462415, 3.03126348063, -0.948323655206, 0, 0, 0
3.67163281109, 3.03487437077, -0.948323655206, 0, 0, 0
3.66763963353, 3.03788344589, -0.948323655206, 0, 0, 0
3.66045191394, 3.0432997811, -0.948323655206, 0, 0, 0
3.65566010088, 3.04691067124, -0.948323655206, 0, 0, 0
3.65166692333, 3.04991974635, -0.948323655206, 0, 0, 0
3.64687511027, 3.05353063649, -0.948323655206, 0, 0, 0
3.63968739068, 3.0589469717, -0.948323655206, 0, 0, 0
3.63569421313, 3.06195604681, -0.948323655206, 0, 0, 0
3.63090240007, 3.06556693695, -0.948323655206, 0, 0, 0
3.62611058701, 3.06917782709, -0.948323655206, 0, 0, 0
3.62131877395, 3.07278871723, -0.948323655206, 0, 0, 0
3.61492968987, 3.07760323742, -0.948323655206, 0, 0, 0
3.61013787681, 3.08121412756, -0.948323655206, 0, 0, 0
3.60534606375, 3.08482501769, -0.948323655206, 0, 0, 0
3.6013528862, 3.08783409281, -0.948323655206, 0, 0, 0
3.59416516661, 3.09325042802, -0.948323655206, 0, 0, 0
3.58937335355, 3.09686131816, -0.948323655206, 0, 0, 0
3.58458154049, 3.1004722083, -0.948323655206, 0, 0, 0
3.58058836294, 3.10348128341, -0.948323655206, 0, 0, 0
3.57579654988, 3.10709217355, -0.948323655206, 0, 0, 0
3.56860883029, 3.11250850876, -0.948323655206, 0, 0, 0
3.56461565274, 3.11551758387, -0.948323655206, 0, 0, 0
3.55982383968, 3.11912847401, -0.948323655206, 0, 0, 0
3.55503202662, 3.12273936415, -0.948323655206, 0, 0, 0
3.54784430703, 3.12815569936, -0.948323655206, 0, 0, 0
3.54385112948, 3.13116477448, -0.948323655206, 0, 0, 0
3.53905931642, 3.13477566462, -0.948323655206, 0, 0, 0
3.53426750336, 3.13838655475, -0.948323655206, 0, 0, 0
3.53027432581, 3.14139562987, -0.948323655206, 0, 0, 0
3.52308660622, 3.14681196508, -0.948323655206, 0, 0, 0
3.51829479316, 3.15042285522, -0.948323655206, 0, 0, 0
3.51430161561, 3.15343193033, -0.948323655206, 0, 0, 0
3.50950980255, 3.15704282047, -0.948323655206, 0, 0, 0
3.50471798949, 3.16065371061, -0.948323655206, 0, 0, 0
3.49753026989, 3.16607004582, -0.948323655206, 0, 0, 0
3.49273845683, 3.16968093596, -0.948323655206, 0, 0, 0
3.48874527928, 3.17269001107, -0.948323655206, 0, 0, 0
3.48395346622, 3.17630090121, -0.948323655206, 0, 0, 0
3.47676574663, 3.18171723642, -0.948323655206, 0, 0, 0
3.47277256908, 3.18472631154, -0.948323655206, 0, 0, 0
3.46798075602, 3.18833720168, -0.948323655206, 0, 0, 0
3.46318894296, 3.19194809182, -0.948323655206, 0, 0, 0
3.4583971299, 3.19555898195, -0.948323655206, 0, 0, 0
3.45200804582, 3.20037350214, -0.948323655206, 0, 0, 0
3.44721623276, 3.20398439228, -0.948323655206, 0, 0, 0
3.4424244197, 3.20759528242, -0.948323655206, 0, 0, 0
3.43843124215, 3.21060435753, -0.948323655206, 0, 0, 0
3.43124352256, 3.21602069274, -0.948323655206, 0, 0, 0
3.4264517095, 3.21963158288, -0.948323655206, 0, 0, 0
3.42165989644, 3.22324247302, -0.948323655206, 0, 0, 0
3.41686808338, 3.22685336316, -0.948323655206, 0, 0, 0
3.41287490583, 3.22986243827, -0.948323655206, 0, 0, 0
3.40568718624, 3.23527877348, -0.948323655206, 0, 0, 0
3.40089537318, 3.23888966362, -0.948323655206, 0, 0, 0
3.39690219563, 3.24189873874, -0.948323655206, 0, 0, 0
3.39211038257, 3.24550962888, -0.948323655206, 0, 0, 0
3.38492266298, 3.25092596408, -0.948323655206, 0, 0, 0
3.38013084992, 3.25453685422, -0.948323655206, 0, 0, 0
3.37613767237, 3.25754592934, -0.948323655206, 0, 0, 0
3.37134585931, 3.26115681948, -0.948323655206, 0, 0, 0
3.36655404625, 3.26476770962, -0.948323655206, 0, 0, 0
3.36016496217, 3.2695822298, -0.948323655206, 0, 0, 0
3.35537314911, 3.27319311994, -0.948323655206, 0, 0, 0
3.35058133605, 3.27680401008, -0.948323655206, 0, 0, 0
3.34578952299, 3.28041490022, -0.948323655206, 0, 0, 0
3.34179634544, 3.28342397533, -0.948323655206, 0, 0, 0
3.33460862585, 3.28884031054, -0.948323655206, 0, 0, 0
3.32981681278, 3.29245120068, -0.948323655206, 0, 0, 0
3.32502499972, 3.29606209082, -0.948323655206, 0, 0, 0
3.32103182217, 3.29907116594, -0.948323655206, 0, 0, 0
3.31384410258, 3.30448750114, -0.948323655206, 0, 0, 0
3.30905228952, 3.30809839128, -0.948323655206, 0, 0, 0
3.30505911197, 3.3111074664, -0.948323655206, 0, 0, 0
3.30026729891, 3.31471835654, -0.948323655206, 0, 0, 0
3.29547548585, 3.31832924668, -0.948323655206, 0, 0, 0
3.28828776626, 3.32374558189, -0.948323655206, 0, 0, 0
3.28429458871, 3.326754657, -0.948323655206, 0, 0, 0
3.27950277565, 3.33036554714, -0.948323655206, 0, 0, 0
3.27471096259, 3.33397643728, -0.948323655206, 0, 0, 0
3.267523243, 3.33939277249, -0.948323655206, 0, 0, 0
3.26353006545, 3.3424018476, -0.948323655206, 0, 0, 0
3.25873825239, 3.34601273774, -0.948323655206, 0, 0, 0
3.25394643933, 3.34962362788, -0.948323655206, 0, 0, 0
3.24995326178, 3.352632703, -0.948323655206, 0, 0, 0
3.24276554219, 3.35804903821, -0.948323655206, 0, 0, 0
3.23797372913, 3.36165992834, -0.948323655206, 0, 0, 0
3.23318191607, 3.36527081848, -0.948323655206, 0, 0, 0
3.22918873852, 3.3682798936, -0.948323655206, 0, 0, 0
3.22200101893, 3.37369622881, -0.948323655206, 0, 0, 0
3.21800784138, 3.37670530392, -0.948323655206, 0, 0, 0
3.21321602832, 3.38031619406, -0.948323655206, 0, 0, 0
3.20842421526, 3.3839270842, -0.948323655206, 0, 0, 0
3.2036324022, 3.38753797434, -0.948323655206, 0, 0, 0
3.19724331812, 3.39235249452, -0.948323655206, 0, 0, 0
3.19245150506, 3.39596338466, -0.948323655206, 0, 0, 0
3.187659692, 3.3995742748, -0.948323655206, 0, 0, 0
3.18286787894, 3.40318516494, -0.948323655206, 0, 0, 0
3.17647879486, 3.40799968513, -0.948323655206, 0, 0, 0
3.1716869818, 3.41161057527, -0.948323655206, 0, 0, 0
3.16689516874, 3.4152214654, -0.948323655206, 0, 0, 0
3.16290199119, 3.41823054052, -0.948323655206, 0, 0, 0
3.15811017812, 3.42184143066, -0.948323655206, 0, 0, 0
3.15092245853, 3.42725776587, -0.948323655206, 0, 0, 0
3.14692928098, 3.43026684098, -0.948323655206, 0, 0, 0
3.14213746792, 3.43387773112, -0.948323655206, 0, 0, 0
3.13734565486, 3.43748862126, -0.948323655206, 0, 0, 0
3.1325538418, 3.4410995114, -0.948323655206, 0, 0, 0
3.12616475772, 3.44591403159, -0.948323655206, 0, 0, 0
3.12137294466, 3.44952492172, -0.948323655206, 0, 0, 0
3.1165811316, 3.45313581186, -0.948323655206, 0, 0, 0
3.11178931854, 3.456746702, -0.948323655206, 0, 0, 0
3.10540023446, 3.46156122219, -0.948323655206, 0, 0, 0
3.1006084214, 3.46517211233, -0.948323655206, 0, 0, 0
3.09581660834, 3.46878300247, -0.948323655206, 0, 0, 0
3.09182343079, 3.47179207758, -0.948323655206, 0, 0, 0
3.08703161773, 3.47540296772, -0.948323655206, 0, 0, 0
3.07984389814, 3.48081930293, -0.948323655206, 0, 0, 0
3.07505208508, 3.48443019307, -0.948323655206, 0, 0, 0
3.07026027202, 3.48804108321, -0.948323655206, 0, 0, 0
3.06546845896, 3.49165197334, -0.948323655206, 0, 0, 0
3.05907937488, 3.49646649353, -0.948323655206, 0, 0, 0
3.05428756182, 3.50007738367, -0.948323655206, 0, 0, 0
3.04949574876, 3.50368827381, -0.948323655206, 0, 0, 0
3.0447039357, 3.50729916395, -0.948323655206, 0, 0, 0
3.03911348713, 3.51151186911, -0.948323655206, 0, 0, 0
3.03192576754, 3.51692820432, -0.948323655206, 0, 0, 0
3.02713395448, 3.52053909446, -0.948323655206, 0, 0, 0
3.02234214142, 3.5241499846, -0.948323655206, 0, 0, 0
3.01755032836, 3.52776087473, -0.948323655206, 0, 0, 0
3.01036260877, 3.53317720994, -0.948323655206, 0, 0, 0
3.00557079571, 3.53678810008, -0.948323655206, 0, 0, 0
3.00077898265, 3.54039899022, -0.948323655206, 0, 0, 0
2.99598716959, 3.54400988036, -0.948323655206, 0, 0, 0
2.99119535652, 3.5476207705, -0.948323655206, 0, 0, 0
2.98410325974, 3.55316172378, -0.951056516295, 0, 0, 0
2.97844014078, 3.55727622054, -0.951056516295, 0, 0, 0
2.97358603882, 3.56080293206, -0.951056516295, 0, 0, 0
2.96873193685, 3.56432964357, -0.951056516295, 0, 0, 0
2.96154421726, 3.56974597878, -0.953716950748, 0, 0, 0
2.95662930499, 3.5731874374, -0.953716950748, 0, 0, 0
2.95171439273, 3.57662889601, -0.953716950748, 0, 0, 0
2.94679948046, 3.58007035463, -0.953716950748, 0, 0, 0
2.9418845682, 3.58351181325, -0.953716950748, 0, 0, 0
2.93379439825, 3.58938966577, -0.956304755963, 0, 0, 0
2.92882017282, 3.59274482319, -0.956304755963, 0, 0, 0
2.92384594738, 3.59609998061, -0.956304755963, 0, 0, 0
2.91887172195, 3.59945513804, -0.956304755963, 0, 0, 0
2.91141038379, 3.60448787417, -0.956304755963, 0, 0, 0
2.90560712079, 3.60840222449, -0.956304755963, 0, 0, 0
2.90063289535, 3.61175738191, -0.956304755963, 0, 0, 0
2.89565866991, 3.61511253933, -0.956304755963, 0, 0, 0
2.89068444448, 3.61846769675, -0.956304755963, 0, 0, 0
2.88322310633, 3.62350043289, -0.956304755963, 0, 0, 0
2.87824888089, 3.62685559031, -0.956304755963, 0, 0, 0
2.87327465546, 3.63021074773, -0.956304755963, 0, 0, 0
2.86830043002, 3.63356590515, -0.956304755963, 0, 0, 0
2.86249716701, 3.63748025547, -0.956304755963, 0, 0, 0
2.85503582886, 3.6425129916, -0.956304755963, 0, 0, 0
2.85006160342, 3.64586814902, -0.956304755963, 0, 0, 0
2.84508737799, 3.64922330644, -0.956304755963, 0, 0, 0
2.84011315255, 3.65257846387, -0.956304755963, 0, 0, 0
2.8326518144, 3.6576112, -0.956304755963, 0, 0, 0
2.82767758897, 3.66096635742, -0.956304755963, 0, 0, 0
2.82270336353, 3.66432151484, -0.956304755963, 0, 0, 0
2.81772913809, 3.66767667226, -0.956304755963, 0, 0, 0
2.81275491266, 3.67103182968, -0.956304755963, 0, 0, 0
2.80446453693, 3.67662375871, -0.956304755963, 0, 0, 0
2.7994903115, 3.67997891614, -0.956304755963, 0, 0, 0
2.79451608606, 3.68333407356, -0.956304755963, 0, 0, 0
2.78954186063, 3.68668923098, -0.956304755963, 0, 0, 0
2.78208052247, 3.69172196711, -0.956304755963, 0, 0, 0
2.77710629704, 3.69507712453, -0.956304755963, 0, 0, 0
2.7721320716, 3.69843228195, -0.956304755963, 0, 0, 0
2.76715784617, 3.70178743937, -0.956304755963, 0, 0, 0
2.76218362073, 3.70514259679, -0.956304755963, 0, 0, 0
2.75472228258, 3.71017533292, -0.956304755963, 0, 0, 0
2.74891901957, 3.71408968325, -0.956304755963, 0, 0, 0
2.74394479414, 3.71744484067, -0.956304755963, 0, 0, 0
2.7389705687, 3.72079999809, -0.956304755963, 0, 0, 0
2.73150923055, 3.72583273422, -0.956304755963, 0, 0, 0
2.72653500511, 3.72918789164, -0.956304755963, 0, 0, 0
2.72156077968, 3.73254304906, -0.956304755963, 0, 0, 0
2.71658655424, 3.73589820648, -0.956304755963, 0, 0, 0
2.71078329123, 3.73981255681, -0.956304755963, 0, 0, 0
2.70332195308, 3.74484529294, -0.956304755963, 0, 0, 0
2.69834772765, 3.74820045036, -0.956304755963, 0, 0, 0
2.69337350221, 3.75155560778, -0.956304755963, 0, 0, 0
2.68839927678, 3.7549107652, -0.956304755963, 0, 0, 0
2.68342505134, 3.75826592262, -0.956304755963, 0, 0, 0
2.6752335309, 3.76400168698, -0.958819734868, 0, 0, 0
2.67020150749, 3.7672695212, -0.958819734868, 0, 0, 0
2.66516948408, 3.77053735541, -0.958819734868, 0, 0, 0
2.66013746067, 3.77380518962, -0.958819734868, 0, 0, 0
2.65258942556, 3.77870694093, -0.958819734868, 0, 0, 0
2.64671873159, 3.78251941418, -0.958819734868, 0, 0, 0
2.64168670818, 3.78578724839, -0.958819734868, 0, 0, 0
2.63665468477, 3.7890550826, -0.958819734868, 0, 0, 0
2.63162266136, 3.79232291681, -0.958819734868, 0, 0, 0
2.62416132321, 3.79735565294, -0.961261695938, 0, 0, 0
2.61907303463, 3.80053516852, -0.961261695938, 0, 0, 0
2.61398474606, 3.80371468411, -0.961261695938, 0, 0, 0
2.60804840938, 3.80742411896, -0.961261695938, 0, 0, 0
2.60050037427, 3.81232587027, -0.963630453209, 0, 0, 0
2.59535737047, 3.81541609872, -0.963630453209, 0, 0, 0
2.59021436666, 3.81850632717, -0.963630453209, 0, 0, 0
2.58507136286, 3.82159655562, -0.963630453209, 0, 0, 0
2.57992835906, 3.82468678407, -0.963630453209, 0, 0, 0
2.57229592619, 3.82945605745, -0.965925826289, 0, 0, 0
2.56623374836, 3.83295605745, -0.965925826289, 0, 0, 0
2.56103759594, 3.83595605745, -0.965925826289, 0, 0, 0
2.55584144352, 3.83895605745, -0.965925826289, 0, 0, 0
2.54812693781, 3.84359140012, -0.968147640378, 0, 0, 0
2.54287921957, 3.84650025784, -0.968147640378, 0, 0, 0
2.53763150133, 3.84940911557, -0.968147640378, 0, 0, 0
2.53150916338, 3.85280278291, -0.968147640378, 0, 0, 0
2.52626144513, 3.85571164063, -0.968147640378, 0, 0, 0
2.5184672165, 3.86021164063, -0.970295726276, 0, 0, 0
2.51316953094, 3.86302847001, -0.970295726276, 0, 0, 0
2.50787184539, 3.86584529938, -0.970295726276, 0, 0, 0
2.50257415983, 3.86866212876, -0.970295726276, 0, 0, 0
2.4937446839, 3.87335684439, -0.970295726276, 0, 0, 0
2.48844699834, 3.87617367376, -0.970295726276, 0, 0, 0
2.48314931279, 3.87899050314, -0.970295726276, 0, 0, 0
2.47785162723, 3.88180733252, -0.970295726276, 0, 0, 0
2.47255394167, 3.88462416189, -0.970295726276, 0, 0, 0
2.46468236431, 3.88898744848, -0.972369920398, 0, 0, 0
2.45933632516, 3.89171139147, -0.972369920398, 0, 0, 0
2.45399028602, 3.89443533447, -0.972369920398, 0, 0, 0
2.44780965287, 3.89772163541, -0.974370064785, 0, 0, 0
2.44241688859, 3.90035186229, -0.974370064785, 0, 0, 0
2.43439782987, 3.90443777679, -0.97629600712, 0, 0, 0
2.42895998315, 3.90697348636, -0.97629600712, 0, 0, 0
2.42352213643, 3.90950919593, -0.97629600712, 0, 0, 0
2.4180842897, 3.9120449055, -0.97629600712, 0, 0, 0
2.40902121183, 3.91627108812, -0.97629600712, 0, 0, 0
2.40358336511, 3.91880679769, -0.97629600712, 0, 0, 0
2.39814551839, 3.92134250726, -0.97629600712, 0, 0, 0
2.39270767167, 3.92387821683, -0.97629600712, 0, 0, 0
2.38726982495, 3.9264139264, -0.97629600712, 0, 0, 0
2.37911305486, 3.93021749076, -0.97629600712, 0, 0, 0
2.37367520814, 3.93275320033, -0.97629600712, 0, 0, 0
2.36823736142, 3.9352889099, -0.97629600712, 0, 0, 0
2.3627995147, 3.93782461947, -0.97629600712, 0, 0, 0
2.35381157423, 3.94220833094, -0.978147600734, 0, 0, 0
2.34924384694, 3.94424201415, -0.978147600734, 0, 0, 0
2.34284902874, 3.94708917065, -0.978147600734, 0, 0, 0
2.33736775599, 3.94952959051, -0.978147600734, 0, 0, 0
2.33188648325, 3.95197001037, -0.978147600734, 0, 0, 0
2.32366457413, 3.95563064016, -0.978147600734, 0, 0, 0
2.31818330138, 3.95807106002, -0.978147600734, 0, 0, 0
2.31270202864, 3.96051147987, -0.978147600734, 0, 0, 0
2.30630721044, 3.96335863638, -0.978147600734, 0, 0, 0
2.29808530132, 3.96701926616, -0.978147600734, 0, 0, 0
2.29260402857, 3.96945968602, -0.978147600734, 0, 0, 0
2.28712275582, 3.97190010588, -0.978147600734, 0, 0, 0
2.28164148308, 3.97434052574, -0.978147600734, 0, 0, 0
2.27616021033, 3.9767809456, -0.978147600734, 0, 0, 0
2.26793830121, 3.98044157539, -0.978147600734, 0, 0, 0
2.26245702847, 3.98288199524, -0.978147600734, 0, 0, 0
2.25606221026, 3.98572915175, -0.978147600734, 0, 0, 0
2.25058093752, 3.9881695716, -0.978147600734, 0, 0, 0
2.24242416744, 3.99197313596, -0.979924704621, 0, 0, 0
2.23690113831, 3.99431752273, -0.979924704621, 0, 0, 0
2.23137810919, 3.9966619095, -0.979924704621, 0, 0, 0
2.22493457522, 3.9993970274, -0.979924704621, 0, 0, 0
2.22033205095, 4.00135068304, -0.979924704621, 0, 0, 0
2.21112700242, 4.00525799433, -0.979924704621, 0, 0, 0
2.2056039733, 4.0076023811, -0.979924704621, 0, 0, 0
2.20008094418, 4.00994676787, -0.979924704621, 0, 0, 0
2.19455791506, 4.01229115464, -0.979924704621, 0, 0, 0
2.18903488594, 4.01463554141, -0.979924704621, 0, 0, 0
2.18075034225, 4.01815212157, -0.979924704621, 0, 0, 0
2.17522731313, 4.02049650834, -0.979924704621, 0, 0, 0
2.16878377916, 4.02323162624, -0.979924704621, 0, 0, 0
2.16326075004, 4.02557601301, -0.979924704621, 0, 0, 0
2.15497620636, 4.02909259317, -0.979924704621, 0, 0, 0
2.14853267238, 4.03182771107, -0.979924704621, 0, 0, 0
2.14300964326, 4.03417209784, -0.979924704621, 0, 0, 0
2.13748661414, 4.03651648461, -0.979924704621, 0, 0, 0
2.13196358502, 4.03886087138, -0.979924704621, 0, 0, 0
2.12367904134, 4.04237745153, -0.979924704621, 0, 0, 0
2.11815601222, 4.04472183831, -0.979924704621, 0, 0, 0
2.1126329831, 4.04706622508, -0.979924704621, 0, 0, 0
2.10710995398, 4.04941061185, -0.979924704621, 0, 0, 0
2.09888804486, 4.05307124163, -0.981627183448, 0, 0, 0
2.09332494173, 4.0553188812, -0.981627183448, 0, 0, 0
2.0877618386, 4.05756652076, -0.981627183448, 0, 0, 0
2.08127155162, 4.06018876691, -0.981627183448, 0, 0, 0
2.0757084485, 4.06243640647, -0.981627183448, 0, 0, 0
2.06742390481, 4.06595298663, -0.983254907564, 0, 0, 0
2.06182242225, 4.06810319432, -0.983254907564, 0, 0, 0
2.05625931913, 4.07035083388, -0.984807753012, 0, 0, 0
2.0506211634, 4.07240295474, -0.984807753012, 0, 0, 0
2.04221893956, 4.07562826629, -0.986285601537, 0, 0, 0
2.03560030954, 4.07790724337, -0.986285601537, 0, 0, 0
2.02992719808, 4.0798606523, -0.986285601537, 0, 0, 0
2.02425408663, 4.08181406123, -0.986285601537, 0, 0, 0
2.01858097517, 4.08376747015, -0.986285601537, 0, 0, 0
2.01012374159, 4.08684565144, -0.987688340595, 0, 0, 0
2.00346634597, 4.0890087704, -0.987688340595, 0, 0, 0
1.99776000688, 4.09086287237, -0.987688340595, 0, 0, 0
1.99205366778, 4.09271697433, -0.987688340595, 0, 0, 0
1.9835440006, 4.09564708773, -0.989015863362, 0, 0, 0
1.97780617206, 4.09740131795, -0.989015863362, 0, 0, 0
1.97206834353, 4.09915554818, -0.989015863362, 0, 0, 0
1.96633051499, 4.10090977841, -0.989015863362, 0, 0, 0
1.96059268645, 4.10266400864, -0.989015863362, 0, 0, 0
1.95203317781, 4.10544516159, -0.990268068742, 0, 0, 0
1.94530434594, 4.10737462308, -0.990268068742, 0, 0, 0
1.93953677576, 4.10902844721, -0.990268068742, 0, 0, 0
1.93376920558, 4.11068227135, -0.990268068742, 0, 0, 0
1.92800163541, 4.11233609548, -0.990268068742, 0, 0, 0
1.91939489261, 4.11496744083, -0.991444861374, 0, 0, 0
1.91359933765, 4.1165203551, -0.991444861374, 0, 0, 0
1.90780378269, 4.11807326937, -0.991444861374, 0, 0, 0
1.90200822773, 4.11962618364, -0.991444861374, 0, 0, 0
1.8933148953, 4.12195555504, -0.991444861374, 0, 0, 0
1.88655341451, 4.12376728836, -0.991444861374, 0, 0, 0
1.88075785955, 4.12532020263, -0.991444861374, 0, 0, 0
1.8749623046, 4.1268731169, -0.991444861374, 0, 0, 0
1.86916674964, 4.12842603117, -0.991444861374, 0, 0, 0
1.8604734172, 4.13075540258, -0.991444861374, 0, 0, 0
1.85467786224, 4.13230831685, -0.991444861374, 0, 0, 0
1.84888230729, 4.13386123112, -0.991444861374, 0, 0, 0
1.8421208265, 4.13567296443, -0.991444861374, 0, 0, 0
1.83342749407, 4.13800233584, -0.991444861374, 0, 0, 0
1.82763193911, 4.13955525011, -0.991444861374, 0, 0, 0
1.82183638415, 4.14110816438, -0.991444861374, 0, 0, 0
1.81604082919, 4.14266107865, -0.991444861374, 0, 0, 0
1.81024527423, 4.14421399292, -0.991444861374, 0, 0, 0
1.80159391897, 4.14669472912, -0.992546151641, 0, 0, 0
1.79480184889, 4.14838818239, -0.992546151641, 0, 0, 0
1.78898007453, 4.14983971377, -0.992546151641, 0, 0, 0
1.78315830017, 4.15129124514, -0.992546151641, 0, 0, 0
1.77446496774, 4.15362061655, -0.993571855677, 0, 0, 0
1.76861874735, 4.15497032287, -0.993571855677, 0, 0, 0
1.76277252696, 4.1563200292, -0.993571855677, 0, 0, 0
1.75692630657, 4.15766973553, -0.993571855677, 0, 0, 0
1.75108008618, 4.15901944185, -0.993571855677, 0, 0, 0
1.7423107556, 4.16104400134, -0.993571855677, 0, 0, 0
1.73549016514, 4.16261865872, -0.993571855677, 0, 0, 0
1.72964394476, 4.16396836505, -0.993571855677, 0, 0, 0
1.72379772437, 4.16531807137, -0.993571855677, 0, 0, 0
1.71506506283, 4.16749536843, -0.994521895368, 0, 0, 0
1.70919617723, 4.16874283858, -0.994521895368, 0, 0, 0
1.70332729162, 4.16999030872, -0.994521895368, 0, 0, 0
1.69745840602, 4.17123777887, -0.994521895368, 0, 0, 0
1.69158952041, 4.17248524901, -0.994521895368, 0, 0, 0
1.68180804441, 4.17456436592, -0.994521895368, 0, 0, 0
1.6759391588, 4.17581183607, -0.994521895368, 0, 0, 0
1.6700702732, 4.17705930621, -0.994521895368, 0, 0, 0
1.66420138759, 4.17830677636, -0.994521895368, 0, 0, 0
1.65445768694, 4.1805562869, -0.995396198367, 0, 0, 0
1.64856792384, 4.18170114087, -0.995396198367, 0, 0, 0
1.64267816074, 4.18284599484, -0.995396198367, 0, 0, 0
1.63678839764, 4.18399084882, -0.995396198367, 0, 0, 0
1.63089863454, 4.18513570279, -0.995396198367, 0, 0, 0
1.62206398989, 4.18685298375, -0.995396198367, 0, 0, 0
1.61617422679, 4.18799783772, -0.995396198367, 0, 0, 0
1.60930283651, 4.18933350069, -0.995396198367, 0, 0, 0
1.6034130734, 4.19047835466, -0.995396198367, 0, 0, 0
1.5975233103, 4.19162320863, -0.995396198367, 0, 0, 0
1.58868866565, 4.19334048959, -0.995396198367, 0, 0, 0
1.58279890255, 4.19448534356, -0.995396198367, 0, 0, 0
1.57690913945, 4.19563019753, -0.995396198367, 0, 0, 0
1.57003774917, 4.1969658605, -0.995396198367, 0, 0, 0
1.56123442076, 4.19883706572, -0.996194698092, 0, 0, 0
1.55532557424, 4.19987895478, -0.996194698092, 0, 0, 0
1.54941672772, 4.20092084385, -0.996194698092, 0, 0, 0
1.54350788121, 4.20196273292, -0.996194698092, 0, 0, 0
1.53464461143, 4.20352556652, -0.996194698092, 0, 0, 0
1.52873576491, 4.20456745558, -0.996194698092, 0, 0, 0
1.52282691839, 4.20560934465, -0.996194698092, 0, 0, 0
1.51691807188, 4.20665123371, -0.996194698092, 0, 0, 0
1.5100244176, 4.20786677096, -0.996194698092, 0, 0, 0
1.50116114783, 4.20942960456, -0.996194698092, 0, 0, 0
1.49525230131, 4.21047149362, -0.996194698092, 0, 0, 0
1.48934345479, 4.21151338269, -0.996194698092, 0, 0, 0
1.48343460827, 4.21255527175, -0.996194698092, 0, 0, 0
1.47752576176, 4.21359716082, -0.996194698092, 0, 0, 0
1.46770948992, 4.21550525077, -0.996917333733, 0, 0, 0
1.46178335988, 4.21644385756, -0.996917333733, 0, 0, 0
1.45585722983, 4.21738246435, -0.996917333733, 0, 0, 0
1.44993109979, 4.21832107115, -0.996917333733, 0, 0, 0
1.44104190472, 4.21972898133, -0.996917333733, 0, 0, 0
1.43511577468, 4.22066758812, -0.996917333733, 0, 0, 0
1.42918964464, 4.22160619491, -0.996917333733, 0, 0, 0
1.42326351459, 4.2225448017, -0.996917333733, 0, 0, 0
1.41634969621, 4.22363984296, -0.996917333733, 0, 0, 0
1.40746050114, 4.22504775314, -0.996917333733, 0, 0, 0
1.4015343711, 4.22598635993, -0.996917333733, 0, 0, 0
1.39560824106, 4.22692496672, -0.996917333733, 0, 0, 0
1.38968211101, 4.22786357351, -0.996917333733, 0, 0, 0
1.38375598097, 4.2288021803, -0.996917333733, 0, 0, 0
1.3748667859, 4.23021009049, -0.996917333733, 0, 0, 0
1.36795296752, 4.23130513174, -0.996917333733, 0, 0, 0
1.36202683748, 4.23224373853, -0.996917333733, 0, 0, 0
1.35610070743, 4.23318234532, -0.996917333733, 0, 0, 0
1.34721151237, 4.23459025551, -0.996917333733, 0, 0, 0
1.34128538232, 4.2355288623, -0.996917333733, 0, 0, 0
1.33535925228, 4.23646746909, -0.996917333733, 0, 0, 0
1.32943312224, 4.23740607588, -0.996917333733, 0, 0, 0
1.32350699219, 4.23834468267, -0.996917333733, 0, 0, 0
1.31363010879, 4.23990902732, -0.996917333733, 0, 0, 0
1.30770397874, 4.24084763411, -0.996917333733, 0, 0, 0
1.3017778487, 4.2417862409, -0.996917333733, 0, 0, 0
1.29585171866, 4.24272484769, -0.996917333733, 0, 0, 0
1.28696252359, 4.24413275788, -0.996917333733, 0, 0, 0
1.28103639355, 4.24507136467, -0.996917333733, 0, 0, 0
1.2751102635, 4.24600997146, -0.996917333733, 0, 0, 0
1.26821660923, 4.2472255087, -0.99756405026, 0, 0, 0
1.26326526889, 4.24792137421, -0.99756405026, 0, 0, 0
1.2533625882, 4.24931310522, -0.99756405026, 0, 0, 0
1.24742097979, 4.25014814382, -0.99756405026, 0, 0, 0
1.24147937138, 4.25098318243, -0.99756405026, 0, 0, 0
1.23553776296, 4.25181822103, -0.99756405026, 0, 0, 0
1.22662535035, 4.25307077894, -0.99756405026, 0, 0, 0
1.22068374193, 4.25390581755, -0.99756405026, 0, 0, 0
1.21375186545, 4.25488002925, -0.99756405026, 0, 0, 0
1.20781025704, 4.25571506786, -0.99756405026, 0, 0, 0
1.20186864863, 4.25655010647, -0.99756405026, 0, 0, 0
1.19295623601, 4.25780266437, -0.99756405026, 0, 0, 0
1.1870146276, 4.25863770298, -0.99756405026, 0, 0, 0
1.18107301918, 4.25947274159, -0.99756405026, 0, 0, 0
1.1741411427, 4.26044695329, -0.99756405026, 0, 0, 0
1.16522873008, 4.2616995112, -0.99756405026, 0, 0, 0
1.15928712167, 4.26253454981, -0.99756405026, 0, 0, 0
1.15334551326, 4.26336958841, -0.99756405026, 0, 0, 0
1.14740390485, 4.26420462702, -0.99756405026, 0, 0, 0
1.13851470978, 4.2656125372, -0.998134798422, 0, 0, 0
1.13255943287, 4.26634375326, -0.998134798422, 0, 0, 0
1.12660415596, 4.26707496932, -0.998134798422, 0, 0, 0
1.12064887905, 4.26780618538, -0.998134798422, 0, 0, 0
1.11469360214, 4.26853740145, -0.998134798422, 0, 0, 0
1.10479092145, 4.26992913245, -0.998629534755, 0, 0, 0
1.09882379008, 4.27055630323, -0.998629534755, 0, 0, 0
1.09286851317, 4.27128751929, -0.999048221582, 0, 0, 0
1.08689134498, 4.27181045375, -0.999048221582, 0, 0, 0
1.0809141768, 4.27233338821, -0.999048221582, 0, 0, 0
1.07196347974, 4.27327414438, -0.999390827019, 0, 0, 0
1.06498053139, 4.27376243969, -0.999390827019, 0, 0, 0
1.05899514708, 4.27418097854, -0.999390827019, 0, 0, 0
1.05300976278, 4.27459951738, -0.999390827019, 0, 0, 0
1.04403168633, 4.27522732564, -0.999390827019, 0, 0, 0
1.03804630203, 4.27564586448, -0.999390827019, 0, 0, 0
1.03206091773, 4.27606440333, -0.999390827019, 0, 0, 0
1.02607553343, 4.27648294217, -0.999390827019, 0, 0, 0
1.02009014912, 4.27690148101, -0.999390827019, 0, 0, 0
1.01012820214, 4.27777303844, -0.999657324976, 0, 0, 0
1.00413642493, 4.27808705418, -0.999657324976, 0, 0, 0
0.998144647726, 4.27840106991, -0.999657324976, 0, 0, 0
0.992152870517, 4.27871508565, -0.999657324976, 0, 0, 0
0.983165204704, 4.27918610926, -0.999657324976, 0, 0, 0
0.977173427496, 4.279500125, -0.999657324976, 0, 0, 0
0.971181650287, 4.27981414073, -0.999657324976, 0, 0, 0
0.965189873079, 4.28012815647, -0.999657324976, 0, 0, 0
0.958199466336, 4.28049450816, -0.999657324976, 0, 0, 0
0.949211800523, 4.28096553177, -0.999657324976, 0, 0, 0
0.943220023314, 4.28127954751, -0.999657324976, 0, 0, 0
0.937228246106, 4.28159356325, -0.999657324976, 0, 0, 0
0.931236468897, 4.28190757898, -0.999657324976, 0, 0, 0
0.922248803084, 4.28237860259, -0.999657324976, 0, 0, 0
0.916257025876, 4.28269261833, -0.999657324976, 0, 0, 0
0.910265248667, 4.28300663406, -0.999657324976, 0, 0, 0
0.903274841924, 4.28337298576, -0.999657324976, 0, 0, 0
0.897283064716, 4.28368700149, -0.999657324976, 0, 0, 0
0.888295398903, 4.2841580251, -0.999657324976, 0, 0, 0
0.882303621694, 4.28447204084, -0.999657324976, 0, 0, 0
0.876311844486, 4.28478605658, -0.999657324976, 0, 0, 0
0.870320067277, 4.28510007231, -0.999657324976, 0, 0, 0
0.86033377193, 4.28562343188, -0.999657324976, 0, 0, 0
0.854341994721, 4.28593744761, -0.999657324976, 0, 0, 0
0.848350217513, 4.28625146335, -0.999657324976, 0, 0, 0
0.842358440304, 4.28656547909, -0.999657324976, 0, 0, 0
0.836366663096, 4.28687949483, -0.999657324976, 0, 0, 0
0.827378997283, 4.28735051843, -0.999657324976, 0, 0, 0
0.820388590539, 4.28771687013, -0.999657324976, 0, 0, 0
0.814396813331, 4.28803088586, -0.999657324976, 0, 0, 0
0.808405036122, 4.2883449016, -0.999657324976, 0, 0, 0
0.802413258914, 4.28865891734, -0.999657324976, 0, 0, 0
0.793435182462, 4.2892867256, -0.999847695156, 0, 0, 0
0.787438837499, 4.28949612258, -0.999847695156, 0, 0, 0
0.781442492537, 4.28970551956, -0.999847695156, 0, 0, 0
0.774446756748, 4.28994981604, -0.999847695156, 0, 0, 0
0.768450411786, 4.29015921302, -0.999847695156, 0, 0, 0
0.759455894343, 4.29047330849, -0.999847695156, 0, 0, 0
0.753459549381, 4.29068270547, -0.999847695156, 0, 0, 0
0.747463204419, 4.29089210245, -0.999847695156, 0, 0, 0
0.738468686976, 4.29120619792, -0.999847695156, 0, 0, 0
0.731472951186, 4.2914504944, -0.999847695156, 0, 0, 0
0.725476606224, 4.29165989138, -0.999847695156, 0, 0, 0
0.719480261262, 4.29186928836, -0.999847695156, 0, 0, 0
0.7134839163, 4.29207868534, -0.999847695156, 0, 0, 0
0.707487571338, 4.29228808232, -0.999847695156, 0, 0, 0
0.697493663068, 4.29263707728, -0.999847695156, 0, 0, 0
0.691497318106, 4.29284647427, -0.999847695156, 0, 0, 0
0.685500973144, 4.29305587125, -0.999847695156, 0, 0, 0
0.678505237354, 4.29330016772, -0.999847695156, 0, 0, 0
0.670510110738, 4.2935793637, -0.999847695156, 0, 0, 0
0.663514374949, 4.29382366017, -0.999847695156, 0, 0, 0
0.657518029987, 4.29403305715, -0.999847695156, 0, 0, 0
0.651521685025, 4.29424245413, -0.999847695156, 0, 0, 0
0.645525340063, 4.29445185111, -0.999847695156, 0, 0, 0
0.63653082262, 4.29476594658, -0.999847695156, 0, 0, 0
0.630534477657, 4.29497534356, -0.999847695156, 0, 0, 0
0.624538132695, 4.29518474054, -0.999847695156, 0, 0, 0
0.618541787733, 4.29539413752, -0.999847695156, 0, 0, 0
0.60954727029, 4.29570823299, -0.999847695156, 0, 0, 0
0.603550925328, 4.29591762997, -0.999847695156, 0, 0, 0
0.596555189539, 4.29616192645, -0.999847695156, 0, 0, 0
0.590558844577, 4.29637132343, -0.999847695156, 0, 0, 0
0.584562499615, 4.29658072041, -0.999847695156, 0, 0, 0
0.575567982171, 4.29689481588, -0.999847695156, 0, 0, 0
0.569571637209, 4.29710421286, -0.999847695156, 0, 0, 0
0.563575292247, 4.29731360984, -0.999847695156, 0, 0, 0
0.557578947285, 4.29752300682, -0.999847695156, 0, 0, 0
0.550583211496, 4.2977673033, -0.999847695156, 0, 0, 0
0.541588694053, 4.29808139877, -0.999847695156, 0, 0, 0
0.535592349091, 4.29829079575, -0.999847695156, 0, 0, 0
0.529596004129, 4.29850019273, -0.999847695156, 0, 0, 0
0.523599659166, 4.29870958971, -0.999847695156, 0, 0, 0
0.514605141723, 4.29902368518, -0.999847695156, 0, 0, 0
0.508608796761, 4.29923308216, -0.999847695156, 0, 0, 0
0.501613060972, 4.29947737864, -0.999847695156, 0, 0, 0
0.49561671601, 4.29968677562, -0.999847695156, 0, 0, 0
0.489620371048, 4.2998961726, -0.999847695156, 0, 0, 0
0.480625853605, 4.30021026807, -0.999847695156, 0, 0, 0
0.474629508642, 4.30041966505, -0.999847695156, 0, 0, 0
0.46863316368, 4.30062906203, -0.999847695156, 0, 0, 0
0.462636818718, 4.30083845901, -0.999847695156, 0, 0, 0
0.453642301275, 4.30115255448, -0.999847695156, 0, 0, 0
0.446646565486, 4.30139685096, -0.999847695156, 0, 0, 0
0.440650220524, 4.30160624794, -0.999847695156, 0, 0, 0
0.434653875562, 4.30181564492, -0.999847695156, 0, 0, 0
0.4286575306, 4.3020250419, -0.999847695156, 0, 0, 0
0.419663013156, 4.30233913737, -0.999847695156, 0, 0, 0
0.412672606413, 4.30270548906, -0.999961923064, 0, 0, 0
0.407673367937, 4.30279275109, -0.999961923064, 0, 0, 0
0.400674434071, 4.30291491794, -0.999961923064, 0, 0, 0
0.391679916628, 4.30322901341, -1.0, 0, 0, 0
0.385679916628, 4.30322901341, -1.0, 0, 0, 0
0.379679916628, 4.30322901341, -1.0, 0, 0, 0
0.373679916628, 4.30322901341, -1.0, 0, 0, 0
0.367679916628, 4.30322901341, -1.0, 0, 0, 0
0.358679916628, 4.30322901341, -1.0, 0, 0, 0
0.352679916628, 4.30322901341, -1.0, 0, 0, 0
0.346679916628, 4.30322901341, -1.0, 0, 0, 0
